-0.6566305685795584 -1.0629976499101161 0.0039
8.664298991632563 -1.3419309282888463 0.00265
-9.10729451073098 -7.787778303142261 0.00295
-11.003687158108335 -5.664242883317712 0.00435
-13.849030052779582 5.403546503407952 0.00775
-3.4208824098252535 15.850228531007815 0.0014
13.805669675987218 10.099378326459444 0.0094
-15.481030453320585 -12.764448765006748 0.0022
4.704730438666644 20.204791082978588 0.00795
-9.013566454055223 -18.974757810621654 0.0088
13.432276841728992 -16.722396157645747 0.00165
-20.16359665877421 -8.159225441157588 0.0066
-14.295978201289188 -16.730202538962487 0.0079
16.01279735630908 -18.634293067568564 0.0093
-25.546473634974703 -2.9651786445447357 0.0024
25.728522426924783 -8.903135716442677 0.0081
-0.02017630267484094 -28.517977117807106 0.0009
-12.691015632001765 25.58399397917735 0.0091
-23.079466536887054 -18.05486173579645 0.0055
-6.699074619677319 -29.436381674078376 0.00205
16.834578561295928 -30.5373573483636 0.0025
30.365471306680405 -19.897449650494977 0.00555
-29.870604130710205 23.802090380489943 0.004
-38.24720668648498 -3.9401006685769033 0.00485
-38.168804353979226 -8.56996684870208 0.00405
21.712533860536794 -33.747456244414735 0.0013
-36.51786172566107 20.099315587135294 0.00225
-39.60903154913788 -13.717655929369357 0.00785
-0.9324614943255369 -43.12058243381698 0.0077
20.896678429717767 39.5098769127537 0.00395
-32.14488421560739 32.285717774118666 0.00455
9.481770627628137 -45.34227357133061 0.0015
41.84648894888548 -19.9284522071393 0.0057
48.79374056814669 -9.06655986593124 0.0063
-20.949168297198597 -45.94141180004756 0.00755
50.22708026170892 8.817101470110174 0.00885
-11.36072919296484 -50.11762410416836 0.00625
49.67104626322018 13.24588123848001 0.00675
-51.01261353934292 -6.718345141025537 0.0096
17.263729724126023 -49.03289559676185 0.0001
26.0968403012172 -45.40341513617232 0.00445
23.817763190500244 -47.024274528345366 0.00135
51.27376200394227 14.903212747981314 0.00635
-44.26734405030255 -30.009393610786162 0.001
39.51098429950156 36.78234883824757 0.009
-14.089847388492544 -52.551541873264185 0.00875
-28.40057919727414 -46.67550075719256 0.0023
35.87538714299279 -41.64284599651571 0.0033
-45.68180165669129 32.1836182976258 0.0028
-34.4014101634976 45.32753630399341 0.0074
15.639866652063759 -54.80409076697168 0.003
13.617302060366555 56.769025370046364 0.0059
45.11498816324695 -38.24067793409769 0.0004
24.00270330459992 54.14874932119844 0.0043
9.011353393240313 -59.18272123788844 0.00015
-49.81545938183136 33.40000699729805 0.00125
59.800776045929496 5.56192120477148 0.00475
58.19291841680774 15.106484851669677 0.00085
-50.90526906566966 33.49354054422881 0.0099
58.03754568472263 19.05891809583629 0.0016
-3.469788279006565 -61.80869752519362 0.0054
-61.0779352456061 -11.147620047248182 5e-05
-52.501407059244755 35.33364982523207 0.0051
-49.75446683211102 39.74511656213488 0.00945
60.151311082204046 -23.177777745951616 0.0021
-4.011644968598375 -64.41421550504695 0.006
-64.51205224314086 -2.343992783741797 0.0089
-58.38023103443477 28.80873596007706 0.0095
-46.09116273122573 -46.34809767699315 0.00765
47.1605756387724 45.42163455461636 0.00525
37.801754114789446 53.59986462324662 0.0092
16.59089842551562 63.48316126781032 0.00715
22.967604801972755 61.95228188486027 0.0041
-10.928772672709684 65.74310688336573 0.0078
-50.99804241203367 44.12868155930937 0.0049
54.30220794448371 45.88723711585308 0.0005
56.25204296719366 -43.83565802220994 0.0034
59.44647301565786 39.48306104781608 0.00905
-70.87068327258248 -9.955402651571774 0.007
11.967789301861814 70.56312051367811 0.00995
-51.78597745118727 -49.45940884053475 0.0076
13.738416767079215 -70.6440490587793 0.00335
-55.59444715713082 46.70663209303913 0.0007
71.18734184995591 15.782862428820394 0.0069
0.3029950581752132 -73.13459250103027 0.00025
-62.045476359179744 39.60635026497968 0.0067
-48.384881833668246 -55.56089361658967 0.00355
66.79236008989722 33.029185067551225 0.00665
63.14439478663601 -39.91683563144175 0.00845
71.16895767817596 24.320291016301468 0.00415
-11.868626733466442 74.48022607115462 0.0072
45.66557448484389 -60.47196389087286 0.00955
-54.193618384610765 53.31531088947955 0.0098
17.541087260060365 -74.65577877396672 0.0058
41.69905262865964 -64.37846304319663 0.0061
-66.84027550971695 -38.65270624288104 0.00725
-36.63733151675639 68.06054981163274 0.00095
-20.481726097078564 74.66211641499652 0.0029
-25.570688780268227 -74.2998542110264 0.0002
-4.398509895215199 -78.83246706915328 0.00705
-67.10710179459427 -41.93081325533685 0.00825
-25.7500698735206 75.56763848568445 0.00935
-49.89424143777232 -63.21023865318398 0.0062
74.19056152221953 -32.25329515147442 0.0056
6.266884755054747 80.90766654757118 0.00565
-26.393060760997813 -76.74335820667658 0.00105
-5.03465652770663 -81.18977661943163 0.0087
10.485495352884726 -81.69595202253335 0.00695
16.817040073567412 80.76611330223403 0.0097
-82.42274878536612 7.523312124406871 0.00605
-83.21623601899847 8.940844871450281 0.00195
69.70024031655763 47.57385544632763 0.00035
55.986799653737506 63.625519589462925 0.0
83.09789794225188 17.013677000928624 0.00115
44.341698065218935 72.34882430161343 0.002
-9.114189648408313 84.83986884062179 0.0037
21.209089825028357 82.72509037138167 0.00375
-74.8624252860687 41.098231284952135 0.00255
-76.69158911888012 37.65295935425442 0.00215
-8.042510460022243 85.08070012434268 0.0008
-70.0373575091368 50.521626829525275 0.00365
-32.76722550728334 -80.21044608493602 0.00345
-85.05831856515334 20.03665212767443 0.00595
-17.185096716779043 -85.87730092303998 0.00545
-82.30069703252775 30.460813585986443 0.00975
88.42999190233428 -2.8930994973064514 0.00055
-2.759112239890115 -88.46649678636003 0.0082
-32.50358794426285 83.0807149178249 0.0017
-40.95827551039706 79.39098882555095 0.00865
66.16389542747672 60.5602656154297 0.0042
84.16099695994598 31.258297985947735 0.00065
7.094964929569329 -89.92185672537735 0.00495
19.07315057345926 88.77019645212724 0.0012
-32.7693968533747 84.84037328014219 0.0052
70.83912921484651 57.94224154448827 0.00925
73.56003063983195 -55.69417625447039 0.00385
-80.2896656719762 45.52021170280818 0.0045
30.41811830990312 87.5599647608359 0.00655
-72.34757958776422 58.5466939042135 0.00075
-31.866862470711027 -87.48968433052016 0.00855
-56.05371886925133 74.53309481679423 0.005
88.8274240590257 32.02638978606714 0.0044
67.10454735440794 67.24448326980666 0.00965
37.427096649818395 -87.39202572099447 0.0046
94.23128831554081 17.719383166600934 0.00285
93.55072065174625 23.091892815406865 0.00835
75.87052469307932 -59.90182429011308 0.00585
74.54121999797951 61.769615912681445 0.00325
50.35292576081011 83.40139452251617 0.00045
-95.2451232095996 -23.863509397536745 0.00315
-10.526918695636269 97.7334147570937 0.0071
27.771563976901106 94.32522106614164 0.00915
96.79491917731826 -17.774202033841277 0.00425
78.2569947462643 -59.75226473997688 0.0065
98.68781513389791 3.9437279323410337 0.0053
-97.53929115248414 -16.191250835760357 0.0035
-87.67345162104374 -45.92015822559301 0.00645
-28.740656306856962 94.79192317773325 0.00615
-31.47914611921155 94.25958469832204 0.0068
78.51314470518415 61.077794328869714 0.00155
-59.68462444848448 -80.50057831813406 0.0003
-86.08616385504568 -51.78148264803646 0.0048
65.74447323352501 76.80132436579359 0.0011
-47.7812047261716 89.21124255694966 0.00745
99.54552361386789 22.367618514504414 0.0036
-66.63707459384413 77.48872665028199 0.0047
93.61473877506285 -45.01326012865165 0.0038
97.11201166325156 37.25768323981731 0.00515
71.44013540482246 -76.32546092455945 0.00185
95.11339639385429 45.35607320405478 0.00245
-86.10654599340572 60.95908048662659 0.00145
-49.93400824535226 -93.35928551114485 0.00175
-89.08344757256756 58.523926562502425 0.0026
-76.90106164407693 -74.66368730611401 0.00815
76.77580790824786 -76.00413609027498 0.00895
65.58920763321962 -86.1497916643364 0.0085
93.46636418598592 -55.58219113809897 0.0006
95.84922656125102 51.636638790830375 0.00985
65.01400742585531 -89.24219739818695 0.0075
90.35466892795412 -63.67124727574534 0.0031
93.62144908886029 -60.7679494916598 0.00505
-89.39101263514269 68.05573761968279 0.00275
81.37793653472619 -77.70840150526126 0.008
95.9001892943077 -59.54058052528164 0.00305
79.29464152205708 80.95025774413074 0.00685
-74.94508215140331 85.06163258179194 0.00465
-90.98613966366338 -68.99373504337277 0.0018
-73.87948411444603 87.9866865161091 0.0019
-97.55336658589873 -62.92473965354852 0.0032
98.7825859955698 -63.209021026051374 0.0086
80.20009371541727 86.58959512147297 0.00735
77.20937860979987 -90.76413905163318 0.00805
68.76810650029444 -97.82307518277082 0.0027
-85.170740928819 -86.92336751676994 0.0083
-76.06738760973946 -97.13321006728981 0.00535
92.65456273555552 -81.71826286891644 0.0084
94.20484483121277 91.09428132342802 0.0064
98.83267370740407 -93.31407691411407 0.00235
93.48820834336834 -98.85378460523602 0.00575
-95.37326843601845 -97.08081789423784 0.0073
