1.4658736559574663 -0.32210473253270777 0.0164
3.535379154152139 2.965072809737876 0.0162
4.278861310270258 1.9840511330377524 0.00825
5.44070897374273 -6.702715455522878 0.01865
8.58691515209182 10.487390884403396 0.00175
-9.19640564579835 -10.28588352870807 0.01265
-2.531301592073575 14.248117287497934 0.00235
10.996325126965004 -10.585271149336137 0.01435
-15.706470738245386 5.505751572591919 0.0189
-11.250114204882536 13.304311397038731 0.0073
-9.684298228256964 14.752359807373566 0.01775
-7.980719369197132 15.748172527084876 0.0167
16.219547685807512 8.512376491268796 0.01065
4.629306057534706 17.809938743935888 5e-05
15.112813503809335 11.175559070490124 0.00995
6.5125235001269886 -17.8718063075263 0.0098
19.49854690463357 -3.35325880434425 0.0083
-7.057685582793425 18.726133396056028 0.00395
16.530534942197278 14.80028613320539 0.01035
22.83812704166226 2.5402729590741018 0.01375
-17.97267122703201 -14.674214386599843 0.01925
-11.648212808995623 20.64760078418935 0.0092
20.465380080777834 -12.61418710185876 0.0142
2.3600120430177896 24.65927749551291 0.002
-5.390757962975741 -24.307099910668512 0.00975
-19.886570042100104 -16.996098425144467 0.01755
-6.182690723732804 25.453579277642802 0.001
9.814799701538107 -25.867210377806444 0.0016
-9.666775424626522 28.185196339242168 0.00105
-21.988653474651755 21.20935656298593 0.017
13.75430932037824 27.560599996107825 0.00115
-30.383041061427235 5.5468279091385 0.0056
-27.54870045244226 -14.92717771976426 0.0082
3.452934620327767 31.939952431865322 0.00095
-4.573325511519172 -32.2740147155546 0.0168
31.020334968855025 -10.605211405513444 0.0129
23.96293795563922 22.822615216913363 0.00065
-29.74129082797647 16.88682959179151 0.0006
2.2277803432438503 34.261933431063994 0.0193
-34.19723212520802 4.685339845653317 0.00885
36.03279656307882 -1.1721126180223251 0.01695
-32.24226177055833 -16.164310720963783 0.01495
20.434838757295324 29.724828839499764 0.0199
36.77677024140934 -5.272672061970681 0.004
-24.89691226936928 -27.645810834272666 0.0198
33.1030696766326 -17.45790459933987 0.0145
-37.51665966714213 -1.364798706797103 0.0027
21.472332773038815 -31.699438495363054 0.00605
5.596019644922649 -38.40540215917518 0.0147
38.78709550867495 3.1479251607608774 0.00135
-8.104991673480882 38.22948142578889 0.00195
-31.245956933548186 23.536132274635563 0.0175
30.729252813650476 -26.505520026460587 0.0151
10.822716268209348 39.19286328918483 0.0066
14.482606483056301 38.099388546107974 0.01665
-2.0657507688552244 40.85434357338738 0.00945
7.473392809665128 40.74104854985657 0.0148
-33.98696026714238 24.854042321510207 0.0184
31.86284293187441 -28.4980788053133 0.00685
8.665913157356215 42.393918071769264 0.01795
36.28344214894952 24.243056998555844 0.0188
-18.302430327983217 39.913271021296566 0.0155
-41.29674067034386 -17.689257212836623 0.00275
-42.41782248177004 16.487258266824227 0.0173
16.402278495398065 42.898894877180936 0.00935
-15.35845652436818 43.92733951136515 0.0182
-12.022262404614963 -46.77424474940211 0.01295
28.604978357064454 39.77895553289957 0.0018
49.08572629091768 3.36693537986379 0.018
-44.83989462267477 20.613888557288135 0.0077
-44.60141565808608 21.801410051933274 0.0158
-43.55834256914986 24.03364109530915 0.0186
39.803170672512465 29.8536854030871 0.0002
1.7876127417959538 -49.743337222912864 0.0099
7.550004083349108 -49.34232930823879 0.008
39.10558090225422 32.21676499633821 0.01485
22.83953834999673 -45.52387119667325 0.01625
-3.3884517584732805 -50.91135823307027 0.01025
2.9189247186886575 -51.3360213300662 0.0024
13.78493438506763 49.8366716646463 0.01235
22.007101732178526 47.083853369667025 0.0012
-10.860061746283066 50.873185355130346 0.00715
-5.9786486811929365 -52.015383907965344 0.01185
-52.00461357804833 -6.856188562716767 0.0197
-39.367604806415926 34.88324780873458 0.0136
8.46586672206277 -51.939817478168735 0.01835
33.79969797745369 -40.48193154659052 0.00315
-43.10119920851949 30.42679832139285 0.0192
23.531365974613323 -47.38779738358747 0.01885
46.02615500860517 26.790809186658777 0.00445
17.269096264648766 -50.90594566214117 0.0169
7.854876947713805 53.670021147723446 0.00675
21.150560388478624 51.13063121472288 0.00665
-30.08009603974378 -46.57115240356446 0.0105
-31.906911959885775 45.4233216038059 0.01095
30.637183817266333 -46.399074644951256 0.006
-44.6330855197731 33.33923813818191 0.01875
10.687221464220386 55.120405145628354 0.00045
-38.357620871690166 41.27013389369628 0.01335
56.15175106933194 -5.821294484240511 0.0196
-54.646674365984005 -15.062869106845838 0.0114
-32.040434586071285 -46.86883177712657 0.0104
-2.542721516813316 56.763338464529426 0.00805
-50.48835492096482 29.139730708019982 0.01845
37.40490489919233 -44.76103690824269 0.0072
37.985678745041355 -44.58621340522741 0.01475
56.91947813927683 -15.234205181389513 0.00405
30.58547071000669 50.382171210753654 0.0123
-54.077472622301606 23.884173352598296 0.01815
-51.61000229979278 30.919565765839906 0.01135
-29.318175280779485 -52.80932823268747 0.0195
55.18039284875894 25.043108860262635 0.0093
60.71040700347143 -2.5127217004610998 0.00535
-60.676578945008416 4.221530847560544 0.01715
-52.90370435052347 -30.0875012779872 0.01915
57.86897188063304 19.726881972961706 0.01585
-61.135886498891544 -1.4499984894146536 0.01305
-32.35713240612799 -52.39744906156767 0.00705
-0.9690017570770806 61.750518260956824 0.0058
33.36089749396169 52.100311761136965 0.0101
53.27523357679712 -31.98559358172946 0.00245
-60.8690914450861 -12.61973805697238 0.00015
-35.75735882890727 50.932344297054385 0.00625
39.33239873922875 -48.32442048293013 0.01005
-28.911683059893335 55.82768821839238 0.0065
9.232416119111136 62.26859408574711 0.01615
-44.46313631136691 45.214457485150774 0.01985
-61.79126292724464 14.960813974293956 0.00485
-32.980910545686754 54.464321228241175 0.00075
-12.534704222969182 62.46009135254161 0.00265
-13.719449999297154 -62.424121803262246 0.0023
47.562141272908434 42.88186521128537 0.016
46.56155522350218 43.96687556635868 0.0174
36.86572143648226 52.89496035846804 0.0134
21.445000019909827 60.82626890239439 0.0118
27.917466525712143 -58.39975670640347 0.007
-62.096215674169144 -19.475858137658662 0.0124
61.73906772616377 -20.793874807292994 0.0144
46.050086718463746 46.23072433515648 0.0022
64.3076165147043 13.340078419369462 0.0102
65.4911006031312 6.009782978111076 0.01575
60.485574708115564 -26.754941971943452 0.0
-66.1185136851303 -4.219364979797689 0.01445
34.58003433637998 56.70130679568453 0.00775
62.216855856213385 24.718665173141318 0.00415
63.837136989740856 -20.955639892161315 0.00505
20.98355506137149 -64.10734523788726 0.0096
61.437016535296664 28.816854875110437 0.01535
65.28611627326194 -19.562532442920258 0.0057
-57.881735293166756 36.13739023169134 0.01175
48.34886071556855 48.32454970064768 0.0044
28.22317807665121 -62.31696615278226 0.00915
-27.218233431620348 62.7800518092279 0.0071
60.790417925647944 -31.837372869268023 0.00255
-46.795732061115004 -50.35141675885506 0.00025
-47.358686647641065 -50.314695202444696 0.0109
24.2677529635982 -64.90927759324931 0.0176
-49.94028230859682 -48.94595664241697 0.0183
41.67134981163437 56.18350286198955 0.0048
42.46662702232334 55.89665683700406 0.0047
-34.078706274660476 61.389589164410495 0.0163
16.03813352828584 68.68271912194899 0.00435
13.540818532566874 69.25577967310693 0.01245
66.66483541778206 -23.30898617464247 0.005
-68.4636018692595 18.152667987745858 0.0091
23.227132613264544 -67.51028360645854 0.0003
70.7402401038558 -13.579677502688583 0.0076
-28.298270484894303 66.4507360147056 0.0039
47.80362708732861 55.69042199305284 0.0157
-57.327302711196396 46.14494208256116 0.0031
-52.90273880209764 51.24826021581228 0.0094
44.805146185892994 58.52909749880098 0.0122
-19.003030795556384 -71.33646712770329 0.00515
46.161818240099535 57.71078479292754 0.0159
-73.8163420262236 3.7006098845651962 0.01675
74.03507833084174 -1.3554603459035661 0.0103
-73.22542444276776 14.961899203677504 0.01365
59.71056987721198 45.358466579715326 0.0132
38.06983917126462 -65.29358462909458 0.00955
71.16123904049317 25.779006021380013 0.01115
74.94707015631906 12.899546518668998 0.0015
71.44206753929052 26.773090515661707 0.00465
-15.304878804255722 74.81354148899652 0.0045
-3.3813292418102208 76.57541131528032 0.00225
73.92981744490353 -20.94025342328527 0.0013
30.156515901801072 -70.68373774157305 0.0089
8.988319600979366 76.37178202261839 0.0126
69.34309337740862 -33.362785748663114 0.00295
51.396804109059104 -57.467413136277656 0.00345
-26.355210165818605 72.95698418542901 0.00475
-41.01728142003145 65.85099374413883 0.01935
43.45902292276227 64.3448605851674 0.01
51.15733116105696 -58.621425845012 0.0046
-47.366862349638005 -61.96346787347182 0.01165
55.21761251595035 55.142877362321286 0.00855
20.621194477442103 75.43632600270271 0.00645
53.38451451967751 57.186555853255925 0.01805
74.53670095049182 24.161061773384446 0.01785
18.6126148277678 76.38677173649714 0.01605
-71.35206821923052 -33.08645306744542 0.0052
-56.18230012387231 -55.60048154256394 0.00785
-14.29908834459171 77.94425459079397 0.0165
63.675695452303785 47.52978882203547 0.01765
74.92156987144716 -26.50130003675511 0.01555
-79.45286045111459 -4.649913700822367 0.01655
14.120130038982154 -78.44101851283718 0.00845
-16.83426879844454 77.93834855229741 0.01225
-60.72916103832673 -51.91792680476275 0.00925
30.238321650956095 73.9607133570947 0.00385
36.411872592221414 71.62400724019585 0.0131
-35.20664718046811 72.28782821017978 0.00835
66.93967597131157 44.61984582095778 0.01085
80.45578638701701 -3.8767051679556346 0.0194
54.73420394872949 -59.19705803869486 0.01825
-80.80888802410271 6.47235142133313 0.01425
-78.98406191872529 -19.213159140914243 0.01545
23.818770163178897 77.88821846114249 0.00365
-43.47879976141014 69.22265758319975 0.003
82.2708435537341 0.7371979601024492 0.0185
-81.69970199267777 -15.62771955939381 0.0001
-82.92887637227972 9.4510297538625 0.015
41.69854255493527 72.658029959992 0.0005
-70.13435863646147 46.173263645927165 0.01125
28.978981408779447 -79.05356453029677 0.00695
84.48369882659884 -4.497839841662227 0.00205
84.43172777163943 -5.724065624333363 0.00615
66.25696883605818 52.9727235053675 0.0115
-82.78093924918846 -18.72528950378947 0.0149
-25.16295302728426 -81.22003525834178 0.00575
65.9876641046578 -53.920603263421675 0.0191
85.21763972857715 1.248611482736024 0.01105
36.29928112323165 77.22441320863817 0.01045
26.4637794625975 81.46415369363237 0.00455
-50.47870430521228 -69.44848829471513 0.0128
-35.933935624718956 -78.00445641363851 0.01195
81.95229630756776 26.397190773437757 0.0014
-1.567795887796052 -86.15777016253034 0.00335
-84.78282481089923 16.47884358616099 0.01635
43.511099360630254 74.84536472970746 0.01355
-79.71085121938552 -35.474979301892716 0.0049
-7.738787010982435 86.9194803906164 0.0064
44.10053992001494 75.37811233059244 0.0161
87.55417718586708 -0.11986298778900562 0.01465
-80.60768511009806 35.06125391505461 0.0036
22.339424364143753 85.16969915245383 0.0053
51.57351297847924 -71.8553438288907 0.01955
-53.46540861527549 -70.56957258817499 0.0153
-65.71506070441689 -59.46016116847144 0.01645
75.39728047172372 46.878594344381185 0.0179
-85.22323860270073 25.487423911280715 0.0117
11.99454888662288 88.20528454178427 0.0011
-66.54815362662181 -59.63731293034489 0.01685
-61.50627031692149 64.88885241304493 0.0075
-75.3260454681498 48.93660727312525 0.0025
-83.71910239589806 -32.859456579709985 0.00375
17.165816961215597 88.62198615545904 0.00525
-57.83585710008439 69.42624167922119 0.0108
-47.92582842258402 -76.92638410271033 0.0051
70.22546690437312 57.729139593954244 0.019
56.643972180988555 71.32573421603612 0.00165
-52.31092361333356 -75.15038811185413 0.0084
-91.412775898736 6.830865432517228 0.0059
69.21942279673948 -60.41980391312096 0.0119
-34.43024864795031 -85.5388671879836 0.0081
6.024849845350815 -92.263099943253 0.0166
-87.72026833188183 -29.458802076672 0.0033
-86.37904593160366 -33.49611716078573 0.00895
60.90538403320056 -70.06379145475357 0.00905
59.2671893434447 -71.51869378839461 0.0087
-71.70188637108888 59.0463470007613 0.0139
-4.2013321731217275 -93.21698014835533 0.01075
-79.89016837653969 -48.342879783424486 0.0038
1.0297963289552854 93.43192414367388 0.0021
-72.24274304202663 -59.714138887993904 0.0019
90.2707491703878 27.503115318817436 0.01905
-94.80792112618839 5.768199842318552 0.01965
16.55380987134359 93.80697511885876 0.01325
-56.186025709906204 -77.09035728319995 0.0152
95.37694935263033 2.495371005296377 0.01895
-95.44592785491686 -2.453624088057609 0.0177
-27.882321160853124 -91.42476596175166 0.01145
93.90665649260725 -18.19525416238676 0.0086
-91.52968361676596 28.15246995567773 0.0172
-95.75567449686227 -1.1630495685149356 0.00305
76.30987455475088 57.940720192006864 0.0097
17.284273476993945 94.4095580260691 0.00635
-29.043985137070962 -91.61554918251849 0.01515
-75.05074715700408 60.251530502315774 0.0141
-22.611096614279063 93.58970052055207 0.00595
-96.51404171009068 3.8201088266602596 0.0041
-53.168504100038106 -80.80496520353398 0.00745
4.907143805156423 -96.62073808022826 0.01945
-57.62155062370131 78.2326428332986 0.0032
78.85272628357401 56.87458969911518 0.01275
-90.68509059180747 -35.66445957445241 0.00735
12.997437181309706 96.5800294614294 0.0187
70.91710452573892 -67.30152208758078 0.01415
9.920395244047327 -97.35709171756201 0.0017
-95.9387511679423 21.227353661107927 0.00555
-51.64262794615411 -83.67234890416279 0.0143
58.20626446113636 79.3411148071344 0.00965
47.39639555877105 86.27346881170419 0.00145
16.399959139260844 -97.07329685353885 0.00495
-56.3165290247289 -81.18468193233537 0.0009
39.48952359225822 -90.61465123126271 0.0042
-48.42529359065391 86.78554316556387 0.0125
2.524421646316142 -99.49777871259269 0.0085
44.48930982592134 89.22330674643933 0.0154
-36.727452170690086 93.29418511104797 0.0008
29.733462214631544 -95.8093556670543 0.0035
-96.75410314154031 26.849416347004436 0.009
-77.90767265700302 -63.51318340867602 0.0133
70.16052235830318 -72.43268077657731 0.01255
51.39564238544639 -87.00047573308798 0.0037
38.115290082436815 93.86950367321052 0.00725
82.86894595949855 59.267406992168276 0.0029
-84.94470130397627 56.579778765664884 0.0026
-82.68863135727449 60.24000362940052 0.00085
94.20895046203009 -40.28646358298309 0.0137
-93.97660477839878 40.83502140102644 0.0111
-78.14028771606452 66.71730891236706 0.00565
-87.85261555293289 54.15705007712225 0.0028
47.77458977444954 -91.54808726112267 0.00545
-42.38860952482646 -94.23779947321422 0.00985
36.01334866456983 97.20395797684179 0.00035
-65.2871486455513 -80.62193210071311 0.01395
98.63188087770769 32.279118138841255 0.00185
-32.888810809381354 98.48819566168669 0.00765
-58.870820120755575 -86.14438161101796 0.00815
-79.7746504683861 67.30096447470626 0.00215
96.54753353307612 40.40360161103169 0.0074
85.48650567355935 60.52280952236998 0.0138
98.774006071891 -35.37425405863823 0.0107
-81.00165282315568 66.73114711779112 0.0067
44.603077878488904 95.35137348915356 0.0069
79.79877424726288 -69.18994838876489 0.00325
86.95549788614957 -60.383541943897924 0.01285
58.84403051218962 -88.49157403475847 0.00655
95.81042350105321 -46.12346928632185 0.0007
46.957560206999005 95.7347794859204 0.01745
89.94419187263813 -57.72539875730747 0.0171
-66.19518364735538 -84.16529070692407 0.0113
-42.05425017884104 -98.4868371119403 0.01215
76.47207032805932 -75.87048478812508 0.01735
82.01750478349891 70.98844589366854 0.0146
-54.44709601965787 94.24421262508184 0.00585
-84.9028563304118 68.14682463793133 0.0127
95.55214327018712 -52.24307650047677 0.01595
-49.724913741675536 96.93497141956539 0.0043
99.91516843089818 -45.34769972913513 0.01525
51.58956212917269 97.63970857931824 0.01385
92.2755191146328 -60.748791213644246 0.00055
-71.09716621645985 -85.61825739437393 0.0095
57.48434485654968 95.42712181744159 0.00285
-90.32859516721211 -65.66429787293484 0.00755
-78.83936389686536 79.39676568479075 0.01055
-53.92838173289303 98.40020305219136 0.00425
-58.25689818714581 96.82463156323325 0.01155
-97.6675386649019 -57.58153084724273 0.01565
-82.10610757152762 78.31431287097536 0.01205
-56.98541608372323 -98.3555326322789 0.01505
-87.26001308488296 72.9024629035776 0.0106
-89.81845259728287 -69.88509772536784 0.00355
-76.23293737256503 84.54616613050547 0.0034
-84.14370567546278 77.1429719773345 0.0181
66.57548063001246 -93.07572094863549 0.0121
96.0298209937502 -62.37379331408057 0.0061
84.93907400279645 77.42731563514047 0.014
69.84676263840879 91.4494927636396 0.00155
94.57271073799265 -65.58770864176688 0.01855
-80.58817038078678 -82.32424150739274 0.011
-75.62701356168775 88.25117716107158 0.0078
-60.66937664177694 99.52646073878154 0.01405
96.13951936599267 66.70774115272948 0.0178
-82.23765204427778 -83.65298834830097 0.01995
-65.6000083210501 -97.40867658986836 0.01455
-75.34396396431242 -90.09831877483924 0.0062
-80.24786010096064 -86.23754316687196 0.0156
75.03053275652874 91.23391156226711 0.00125
-90.10379067019392 77.43650774362058 0.00875
89.91315085682837 -79.0126856831609 0.01725
-75.37011060278348 95.24624705700168 0.0088
95.44421190813367 75.41725646695144 0.0055
-79.96877217429513 -91.81764189980974 0.01975
84.23560361661006 88.457099842404 0.0135
78.35663575346499 -94.30238180113406 0.0063
73.98649560661315 -98.3311324797985 0.0112
-75.68685762072136 -99.77577437835832 0.0079
-80.28709448206351 -96.22095877905781 0.01705
85.3186210064342 -92.52598063852666 0.01345
-93.86470763472865 -84.51138309977006 0.01015
-94.24612754099782 84.22833678644602 0.0054
-93.17614166289643 -86.91086250798143 0.0004
83.90902496147933 96.29727492829048 0.0068
-83.8425119034161 -96.83020966780921 0.012
81.03485081656456 99.95739252551823 0.00865
-88.82183037134 -95.89984226361099 0.00795
92.07451045696439 99.43445052076092 0.013
-99.77779716633357 -93.25904975922124 0.01315
-95.97654121642782 97.7246748234904 0.0116
