5 0 0 
-5 6.12303e-16 1.96479e-15 
3.06152e-16 5 9.82396e-16 
-9.18455e-16 -5 -2.54745e-14 
3.36662 -3.55184 0.448383 
-3.55184 -3.36662 0.448383 
-3.36662 3.55184 0.448383 
3.55184 3.36662 0.448383 
1.19881 2.79144 -0.272952 
-2.79144 1.19881 -0.272952 
-1.19881 -2.79144 -0.272952 
2.79144 -1.19881 -0.272952 
3.05698 1.354 -0.754251 
-1.354 3.05698 -0.754251 
-3.05698 -1.354 -0.754251 
1.354 -3.05698 -0.754251 
3.96417 1.3489 0.982287 
-1.3489 3.96417 0.982287 
-3.96417 -1.3489 0.982287 
1.3489 -3.96417 0.982287 
2.12755 4.4934 -0.236499 
-4.4934 2.12755 -0.236499 
-2.12755 -4.4934 -0.236499 
4.4934 -2.12755 -0.236499 
-0.950922 -3.94994 0.998027 
3.94994 -0.950922 0.998027 
0.950922 3.94994 0.998027 
-3.94994 0.950922 0.998027 
2.43718 2.1189 0.637424 
-2.1189 2.43718 0.637424 
-2.43718 -2.1189 0.637424 
2.1189 -2.43718 0.637424 
2.65984 3.12062 -0.994951 
-3.12062 2.65984 -0.994951 
-2.65984 -3.12062 -0.994951 
3.12062 -2.65984 -0.994951 
4.46448 2.07962 -0.379779 
-2.07962 4.46448 -0.379779 
-4.46448 -2.07962 -0.379779 
2.07962 -4.46448 -0.379779 
-3.73853 0.0685981 -0.965382 
0.0685981 3.73853 -0.965382 
3.73853 -0.0685981 -0.965382 
-0.0685981 -3.73853 -0.965382 
3.05767 0.277408 0.368125 
-0.277408 3.05767 0.368125 
-3.05767 -0.277408 0.368125 
0.277408 -3.05767 0.368125 
2.30952 3.735 0.920232 
-3.735 2.30952 0.920232 
-2.30952 -3.735 0.920232 
3.735 -2.30952 0.920232 
1.32428 3.88063 -0.994951 
-3.88063 1.32428 -0.994951 
-1.32428 -3.88063 -0.994951 
3.88063 -1.32428 -0.994951 
-4.55328 -0.826551 -0.778462 
-0.826551 4.55328 -0.778462 
4.55328 0.826551 -0.778462 
0.826551 -4.55328 -0.778462 
2.19372 2.21533 -0.470704 
-2.21533 2.19372 -0.470704 
-2.19372 -2.21533 -0.470704 
2.21533 -2.19372 -0.470704 
3.71372 3.0316 -0.60793 
-3.0316 3.71372 -0.60793 
-3.71372 -3.0316 -0.60793 
3.0316 -3.71372 -0.60793 
4.41362 0.327834 0.904827 
-0.327834 4.41362 0.904827 
-4.41362 -0.327834 0.904827 
0.327834 -4.41362 0.904827 
1.21463 4.79567 0.320944 
-4.79567 1.21463 0.320944 
-1.21463 -4.79567 0.320944 
4.79567 -1.21463 0.320944 
4.80611 1.24753 0.260842 
-1.24753 4.80611 0.260842 
-4.80611 -1.24753 0.260842 
1.24753 -4.80611 0.260842 
1.54328 2.96592 0.754251 
-2.96592 1.54328 0.754251 
-1.54328 -2.96592 0.754251 
2.96592 -1.54328 0.754251 
3.68001 2.39619 0.920232 
-2.39619 3.68001 0.920232 
-3.68001 -2.39619 0.920232 
2.39619 -3.68001 0.920232 
0.623081 4.61471 -0.754251 
-4.61471 0.623081 -0.754251 
-0.623081 -4.61471 -0.754251 
4.61471 -0.623081 -0.754251 
2.99577 1.27054 0.666012 
-1.27054 2.99577 0.666012 
-2.99577 -1.27054 0.666012 
1.27054 -2.99577 0.666012 
2.93189 4.04395 0.100362 
-4.04395 2.93189 0.100362 
-2.93189 -4.04395 0.100362 
4.04395 -2.93189 0.100362 
3.24262 2.27713 -0.999289 
-2.27713 3.24262 -0.999289 
-3.24262 -2.27713 -0.999289 
2.27713 -3.24262 -0.999289 
3.94818 1.50211 -0.974527 
-1.50211 3.94818 -0.974527 
-3.94818 -1.50211 -0.974527 
1.50211 -3.94818 -0.974527 
0.277408 3.05767 -0.368125 
-3.05767 0.277408 -0.368125 
-0.277408 -3.05767 -0.368125 
3.05767 -0.277408 -0.368125 
0.691675 3.02817 0.448383 
-3.02817 0.691675 0.448383 
-0.691675 -3.02817 0.448383 
3.02817 -0.691675 0.448383 
4.19132 2.67395 0.236499 
-2.67395 4.19132 0.236499 
-4.19132 -2.67395 0.236499 
2.67395 -4.19132 0.236499 
1.774 3.07683 -0.893841 
-3.07683 1.774 -0.893841 
-1.774 -3.07683 -0.893841 
3.07683 -1.774 -0.893841 
2.64796 2.91375 0.998027 
-2.91375 2.64796 0.998027 
-2.64796 -2.91375 0.998027 
2.91375 -2.64796 0.998027 
2.19599 3.8942 -0.882291 
-3.8942 2.19599 -0.882291 
-2.19599 -3.8942 -0.882291 
3.8942 -2.19599 -0.882291 
0.154545 3.59377 0.915241 
-3.59377 0.154545 0.915241 
-0.154545 -3.59377 0.915241 
3.59377 -0.154545 0.915241 
2.58254 1.52907 -0.0502443 
-1.52907 2.58254 -0.0502443 
-2.58254 -1.52907 -0.0502443 
1.52907 -2.58254 -0.0502443 
3.17073 0.523864 -0.61786 
-0.523864 3.17073 -0.61786 
-3.17073 -0.523864 -0.61786 
0.523864 -3.17073 -0.61786 
0.544127 4.62469 0.754251 
-4.62469 0.544127 0.754251 
-0.544127 -4.62469 0.754251 
4.62469 -0.544127 0.754251 
1.65692 4.29973 0.79399 
-4.29973 1.65692 0.79399 
-1.65692 -4.29973 0.79399 
4.29973 -1.65692 0.79399 
3.08428 3.67998 -0.597905 
-3.67998 3.08428 -0.597905 
-3.08428 -3.67998 -0.597905 
3.67998 -3.08428 -0.597905 
1.85586 2.38266 0.19971 
-2.38266 1.85586 0.19971 
-1.85586 -2.38266 0.19971 
2.38266 -1.85586 0.19971 
3.49674 0.740193 0.904827 
-0.740193 3.49674 0.904827 
-3.49674 -0.740193 0.904827 
0.740193 -3.49674 0.904827 
0.916436 3.26593 -0.79399 
-3.26593 0.916436 -0.79399 
-0.916436 -3.26593 -0.79399 
3.26593 -0.916436 -0.79399 
3.85448 0.669222 -0.996134 
-0.669222 3.85448 -0.996134 
-3.85448 -0.669222 -0.996134 
0.669222 -3.85448 -0.996134 
4.29481 2.05802 0.647056 
-2.05802 4.29481 0.647056 
-4.29481 -2.05802 0.647056 
2.05802 -4.29481 0.647056 
1.50351 4.51888 -0.647056 
-4.51888 1.50351 -0.647056 
-1.50351 -4.51888 -0.647056 
4.51888 -1.50351 -0.647056 
2.33766 4.29942 0.448383 
-4.29942 2.33766 0.448383 
-2.33766 -4.29942 0.448383 
4.29942 -2.33766 0.448383 
2.88125 0.838258 -0.0376902 
-0.838258 2.88125 -0.0376902 
-2.88125 -0.838258 -0.0376902 
0.838258 -2.88125 -0.0376902 
3.06837 2.02992 0.947098 
-2.02992 3.06837 0.947098 
-3.06837 -2.02992 0.947098 
2.02992 -3.06837 0.947098 
2.9688 3.64707 0.711536 
-3.64707 2.9688 0.711536 
-2.9688 -3.64707 0.711536 
3.64707 -2.9688 0.711536 
1.62919 3.61188 0.999289 
-3.61188 1.62919 0.999289 
-1.62919 -3.61188 0.999289 
3.61188 -1.62919 0.999289 
3.87977 2.40984 -0.823533 
-2.40984 3.87977 -0.823533 
-3.87977 -2.40984 -0.823533 
2.40984 -3.87977 -0.823533 
-4.92785 -0.609325 -0.260842 
-0.609325 4.92785 -0.260842 
4.92785 0.609325 -0.260842 
0.609325 -4.92785 -0.260842 
4.33907 0.219929 -0.938734 
-0.219929 4.33907 -0.938734 
-4.33907 -0.219929 -0.938734 
0.219929 -4.33907 -0.938734 
4.58969 1.4601 -0.577573 
-1.4601 4.58969 -0.577573 
-4.58969 -1.4601 -0.577573 
1.4601 -4.58969 -0.577573 
4.94415 -0.633431 -0.175023 
0.633431 4.94415 -0.175023 
-4.94415 0.633431 -0.175023 
-0.633431 -4.94415 -0.175023 
4.82857 0.635282 0.492727 
-0.635282 4.82857 0.492727 
-4.82857 -0.635282 0.492727 
0.635282 -4.82857 0.492727 
2.09703 2.65355 0.786288 
-2.65355 2.09703 0.786288 
-2.09703 -2.65355 0.786288 
2.65355 -2.09703 0.786288 
2.63887 4.11464 -0.45958 
-4.11464 2.63887 -0.45958 
-2.63887 -4.11464 -0.45958 
4.11464 -2.63887 -0.45958 
2.76439 1.91444 -0.770513 
-1.91444 2.76439 -0.770513 
-2.76439 -1.91444 -0.770513 
1.91444 -2.76439 -0.770513 
0.0307723 4.80147 -0.597905 
-4.80147 0.0307723 -0.597905 
-0.0307723 -4.80147 -0.597905 
4.80147 -0.0307723 -0.597905 
1.81202 4.61557 0.285019 
-4.61557 1.81202 0.285019 
-1.81202 -4.61557 0.285019 
4.61557 -1.81202 0.285019 
4.6313 1.84309 0.175023 
-1.84309 4.6313 0.175023 
-4.6313 -1.84309 0.175023 
1.84309 -4.6313 0.175023 
3.42329 3.63901 -0.0878512 
-3.63901 3.42329 -0.0878512 
-3.42329 -3.63901 -0.0878512 
3.63901 -3.42329 -0.0878512 
1.01042 3.34719 0.863923 
-3.34719 1.01042 0.863923 
-1.01042 -3.34719 0.863923 
3.34719 -1.01042 0.863923 
3.22574 3.09545 0.882291 
-3.09545 3.22574 0.882291 
-3.22574 -3.09545 0.882291 
3.09545 -3.22574 0.882291 
2.48345 2.53899 -0.893841 
-2.53899 2.48345 -0.893841 
-2.48345 -2.53899 -0.893841 
2.53899 -2.48345 -0.893841 
3.85322 3.18521 -0.0376902 
-3.18521 3.85322 -0.0376902 
-3.85322 -3.18521 -0.0376902 
3.18521 -3.85322 -0.0376902 
0.573665 4.06003 -0.994951 
-4.06003 0.573665 -0.994951 
-0.573665 -4.06003 -0.994951 
4.06003 -0.573665 -0.994951 
4.81625 0.0296565 0.577573 
-0.0296565 4.81625 0.577573 
-4.81625 -0.0296565 0.577573 
0.0296565 -4.81625 0.577573 
4.47797 1.49303 0.693653 
-1.49303 4.47797 0.693653 
-4.47797 -1.49303 0.693653 
1.49303 -4.47797 0.693653 
4.1758 2.62875 -0.356412 
-2.62875 4.1758 -0.356412 
-4.1758 -2.62875 -0.356412 
2.62875 -4.1758 -0.356412 
1.75226 2.60859 -0.51444 
-2.60859 1.75226 -0.51444 
-1.75226 -2.60859 -0.51444 
2.60859 -1.75226 -0.51444 
3.2197 2.95196 -0.929776 
-2.95196 3.2197 -0.929776 
-3.2197 -2.95196 -0.929776 
2.95196 -3.2197 -0.929776 
0.205137 4.18235 0.982287 
-4.18235 0.205137 0.982287 
-0.205137 -4.18235 0.982287 
4.18235 -0.205137 0.982287 
1.10496 4.47349 0.79399 
-4.47349 1.10496 0.79399 
-1.10496 -4.47349 0.79399 
4.47349 -1.10496 0.79399 
1.21967 2.79436 0.309017 
-2.79436 1.21967 0.309017 
-1.21967 -2.79436 0.309017 
2.79436 -1.21967 0.309017 
2.25396 1.98412 0.0753268 
-1.98412 2.25396 0.0753268 
-2.25396 -1.98412 0.0753268 
1.98412 -2.25396 0.0753268 
4.44672 0.894677 0.844328 
-0.894677 4.44672 0.844328 
-4.44672 -0.894677 0.844328 
0.894677 -4.44672 0.844328 
3.55761 1.74452 0.999289 
-1.74452 3.55761 0.999289 
-3.55761 -1.74452 0.999289 
1.74452 -3.55761 0.999289 
1.24789 4.81247 -0.236499 
-4.81247 1.24789 -0.236499 
-1.24789 -4.81247 -0.236499 
4.81247 -1.24789 -0.236499 
3.87481 0.309364 0.993611 
-0.309364 3.87481 0.993611 
-3.87481 -0.309364 0.993611 
0.309364 -3.87481 0.993611 
3.84671 2.83488 0.627691 
-2.83488 3.84671 0.627691 
-3.84671 -2.83488 0.627691 
2.83488 -3.84671 0.627691 
3.47532 1.05482 -0.929776 
-1.05482 3.47532 -0.929776 
-3.47532 -1.05482 -0.929776 
1.05482 -3.47532 -0.929776 
2.99947 0.288478 -0.162637 
-0.288478 2.99947 -0.162637 
-2.99947 -0.288478 -0.162637 
0.288478 -2.99947 -0.162637 
3.33025 1.75311 -0.971632 
-1.75311 3.33025 -0.971632 
-3.33025 -1.75311 -0.971632 
1.75311 -3.33025 -0.971632 
1.75976 3.59211 -1 
-3.59211 1.75976 -1 
-1.75976 -3.59211 -1 
3.59211 -1.75976 -1 
1.95201 3.20343 0.968583 
-3.20343 1.95201 0.968583 
-1.95201 -3.20343 0.968583 
3.20343 -1.95201 0.968583 
4.1872 1.92363 -0.79399 
-1.92363 4.1872 -0.79399 
-4.1872 -1.92363 -0.79399 
1.92363 -4.1872 -0.79399 
3.07127 2.62111 0.999289 
-2.62111 3.07127 0.999289 
-3.07127 -2.62111 0.999289 
2.62111 -3.07127 0.999289 
0.602879 4.90609 0.33282 
-4.90609 0.602879 0.33282 
-0.602879 -4.90609 0.33282 
4.90609 -0.602879 0.33282 
0.287364 2.99579 0.13779 
-2.99579 0.287364 0.13779 
-0.287364 -2.99579 0.13779 
2.99579 -0.287364 0.13779 
2.22843 3.39711 -0.998027 
-3.39711 2.22843 -0.998027 
-2.22843 -3.39711 -0.998027 
3.39711 -2.22843 -0.998027 
3.97889 0.821382 0.998027 
-0.821382 3.97889 0.998027 
-3.97889 -0.821382 0.998027 
0.821382 -3.97889 0.998027 
3.35031 0.286987 0.770513 
-0.286987 3.35031 0.770513 
-3.35031 -0.286987 0.770513 
0.286987 -3.35031 0.770513 
2.67898 3.60662 -0.870184 
-3.60662 2.67898 -0.870184 
-2.67898 -3.60662 -0.870184 
3.60662 -2.67898 -0.870184 
0.520381 3.54766 -0.910106 
-3.54766 0.520381 -0.910106 
-0.520381 -3.54766 -0.910106 
3.54766 -0.520381 -0.910106 
2.67593 1.56624 0.437116 
-1.56624 2.67593 0.437116 
-2.67593 -1.56624 0.437116 
1.56624 -2.67593 0.437116 
0.07707 3.31456 -0.728969 
-3.31456 0.07707 -0.728969 
-0.07707 -3.31456 -0.728969 
3.31456 -0.07707 -0.728969 
2.80908 1.22777 -0.356412 
-1.22777 2.80908 -0.356412 
-2.80908 -1.22777 -0.356412 
1.22777 -2.80908 -0.356412 
4.82103 1.22621 -0.224271 
-1.22621 4.82103 -0.224271 
-4.82103 -1.22621 -0.224271 
1.22621 -4.82103 -0.224271 
2.98136 0.85156 0.437116 
-0.85156 2.98136 0.437116 
-2.98136 -0.85156 0.437116 
0.85156 -2.98136 0.437116 
2.05502 4.28717 -0.656586 
-4.28717 2.05502 -0.656586 
-2.05502 -4.28717 -0.656586 
4.28717 -2.05502 -0.656586 
3.5112 1.2135 0.958522 
-1.2135 3.5112 0.958522 
-3.5112 -1.2135 0.958522 
1.2135 -3.5112 0.958522 
0.120269 3.18872 0.587785 
-3.18872 0.120269 0.587785 
-0.120269 -3.18872 0.587785 
3.18872 -0.120269 0.587785 
0.837786 2.88097 0.0251301 
-2.88097 0.837786 0.0251301 
-0.837786 -2.88097 0.0251301 
2.88097 -0.837786 0.0251301 
1.15621 4.30709 -0.888136 
-4.30709 1.15621 -0.888136 
-1.15621 -4.30709 -0.888136 
4.30709 -1.15621 -0.888136 
2.21179 2.9251 -0.942991 
-2.9251 2.21179 -0.942991 
-2.21179 -2.9251 -0.942991 
2.9251 -2.21179 -0.942991 
3.73933 1.99132 -0.971632 
-1.99132 3.73933 -0.971632 
-3.73933 -1.99132 -0.971632 
1.99132 -3.73933 -0.971632 
0.620692 3.62632 0.947098 
-3.62632 0.620692 0.947098 
-0.620692 -3.62632 0.947098 
3.62632 -0.620692 0.947098 
4.16372 1.01236 -0.958522 
-1.01236 4.16372 -0.958522 
-4.16372 -1.01236 -0.958522 
1.01236 -4.16372 -0.958522 
3.52085 0.371697 -0.888136 
-0.371697 3.52085 -0.888136 
-3.52085 -0.371697 -0.888136 
0.371697 -3.52085 -0.888136 
1.27346 3.00369 -0.675333 
-3.00369 1.27346 -0.675333 
-1.27346 -3.00369 -0.675333 
3.00369 -1.27346 -0.675333 
2.53899 2.48345 0.893841 
-2.48345 2.53899 0.893841 
-2.53899 -2.48345 0.893841 
2.48345 -2.53899 0.893841 
1.6906 4.13873 -0.882291 
-4.13873 1.6906 -0.882291 
-1.6906 -4.13873 -0.882291 
4.13873 -1.6906 -0.882291 
1.52651 2.58341 -0.0376902 
-2.58341 1.52651 -0.0376902 
-1.52651 -2.58341 -0.0376902 
2.58341 -1.52651 -0.0376902 
2.71264 3.36335 0.947098 
-3.36335 2.71264 0.947098 
-2.71264 -3.36335 0.947098 
3.36335 -2.71264 0.947098 
3.96193 1.9206 0.915241 
-1.9206 3.96193 0.915241 
-3.96193 -1.9206 0.915241 
1.9206 -3.96193 0.915241 
2.77668 1.19454 0.212007 
-1.19454 2.77668 0.212007 
-2.77668 -1.19454 0.212007 
1.19454 -2.77668 0.212007 
2.9048 2.63916 -0.997159 
-2.63916 2.9048 -0.997159 
-2.9048 -2.63916 -0.997159 
2.63916 -2.9048 -0.997159 
1.4025 3.35015 -0.929776 
-3.35015 1.4025 -0.929776 
-1.4025 -3.35015 -0.929776 
3.35015 -1.4025 -0.929776 
0.853903 2.99241 -0.45958 
-2.99241 0.853903 -0.45958 
-0.853903 -2.99241 -0.45958 
2.99241 -0.853903 -0.45958 
2.55228 1.75099 -0.425779 
-1.75099 2.55228 -0.425779 
-2.55228 -1.75099 -0.425779 
1.75099 -2.55228 -0.425779 
4.38164 2.40596 -0.0502443 
-2.40596 4.38164 -0.0502443 
-4.38164 -2.40596 -0.0502443 
2.40596 -4.38164 -0.0502443 
3.60926 3.36465 -0.356412 
-3.36465 3.60926 -0.356412 
-3.60926 -3.36465 -0.356412 
3.36465 -3.60926 -0.356412 
3.18215 1.57731 0.893841 
-1.57731 3.18215 0.893841 
-3.18215 -1.57731 0.893841 
1.57731 -3.18215 0.893841 
3.14236 0.93912 -0.693653 
-0.93912 3.14236 -0.693653 
-3.14236 -0.93912 -0.693653 
0.93912 -3.14236 -0.693653 
1.59684 2.67092 0.45958 
-2.67092 1.59684 0.45958 
-1.59684 -2.67092 0.45958 
2.67092 -1.59684 0.45958 
0.935979 4.7665 -0.51444 
-4.7665 0.935979 -0.51444 
-0.935979 -4.7665 -0.51444 
4.7665 -0.935979 -0.51444 
2.40596 4.38164 0.0502443 
-4.38164 2.40596 0.0502443 
-2.40596 -4.38164 0.0502443 
4.38164 -2.40596 0.0502443 
2.76517 1.84587 0.737513 
-1.84587 2.76517 0.737513 
-2.76517 -1.84587 0.737513 
1.84587 -2.76517 0.737513 
0.324442 -4.95798 0.24869 
4.95798 0.324442 0.24869 
-0.324442 4.95798 0.24869 
-4.95798 -0.324442 0.24869 
1.4601 4.58969 0.577573 
-4.58969 1.4601 0.577573 
-1.4601 -4.58969 0.577573 
4.58969 -1.4601 0.577573 
1.00175 3.62773 -0.971632 
-3.62773 1.00175 -0.971632 
-1.00175 -3.62773 -0.971632 
3.62773 -1.00175 -0.971632 
0.326936 4.37919 -0.920232 
-4.37919 0.326936 -0.920232 
-0.326936 -4.37919 -0.920232 
4.37919 -0.326936 -0.920232 
0.547309 3.27931 0.737513 
-3.27931 0.547309 0.737513 
-0.547309 -3.27931 0.737513 
3.27931 -0.547309 0.737513 
2.50373 4.01179 0.684547 
-4.01179 2.50373 0.684547 
-2.50373 -4.01179 0.684547 
4.01179 -2.50373 0.684547 
1.1118 3.02361 0.627691 
-3.02361 1.1118 0.627691 
-1.1118 -3.02361 0.627691 
3.02361 -1.1118 0.627691 
3.12802 3.81028 0.368125 
-3.81028 3.12802 0.368125 
-3.12802 -3.81028 0.368125 
3.81028 -3.12802 0.368125 
3.19147 3.33754 -0.786288 
-3.33754 3.19147 -0.786288 
-3.19147 -3.33754 -0.786288 
3.33754 -3.19147 -0.786288 
0.767225 4.30022 0.929776 
-4.30022 0.767225 0.929776 
-0.767225 -4.30022 0.929776 
4.30022 -0.767225 0.929776 
2.0955 2.35055 0.525175 
-2.35055 2.0955 0.525175 
-2.0955 -2.35055 0.525175 
2.35055 -2.0955 0.525175 
0.486461 3.22602 -0.675333 
-3.22602 0.486461 -0.675333 
-0.486461 -3.22602 -0.675333 
3.22602 -0.486461 -0.675333 
1.2921 4.14806 0.938734 
-4.14806 1.2921 0.938734 
-1.2921 -4.14806 0.938734 
4.14806 -1.2921 0.938734 
1.54379 4.75537 0.0251301 
-4.75537 1.54379 0.0251301 
-1.54379 -4.75537 0.0251301 
4.75537 -1.54379 0.0251301 
4.20952 2.27783 -0.61786 
-2.27783 4.20952 -0.61786 
-4.20952 -2.27783 -0.61786 
2.27783 -4.20952 -0.61786 
4.91038 0.938625 0.0376902 
-0.938625 4.91038 0.0376902 
-4.91038 -0.938625 0.0376902 
0.938625 -4.91038 0.0376902 
1.84627 2.3901 -0.19971 
-2.3901 1.84627 -0.19971 
-1.84627 -2.3901 -0.19971 
2.3901 -1.84627 -0.19971 
0.875244 4.74346 0.567269 
-4.74346 0.875244 0.567269 
-0.875244 -4.74346 0.567269 
4.74346 -0.875244 0.567269 
1.80718 3.96389 0.934329 
-3.96389 1.80718 0.934329 
-1.80718 -3.96389 0.934329 
3.96389 -1.80718 0.934329 
0.932673 4.90935 0.0753268 
-4.90935 0.932673 0.0753268 
-0.932673 -4.90935 0.0753268 
4.90935 -0.932673 0.0753268 
4.31771 1.35448 -0.850994 
-1.35448 4.31771 -0.850994 
-4.31771 -1.35448 -0.850994 
1.35448 -4.31771 -0.850994 
2.33058 3.31254 0.998737 
-3.31254 2.33058 0.998737 
-2.33058 -3.31254 0.998737 
3.31254 -2.33058 0.998737 
2.84297 2.2601 -0.929776 
-2.2601 2.84297 -0.929776 
-2.84297 -2.2601 -0.929776 
2.2601 -2.84297 -0.929776 
4.79447 0.88964 -0.481754 
-0.88964 4.79447 -0.481754 
-4.79447 -0.88964 -0.481754 
0.88964 -4.79447 -0.481754 
4.75537 1.54379 -0.0251301 
-1.54379 4.75537 -0.0251301 
-4.75537 -1.54379 -0.0251301 
1.54379 -4.75537 -0.0251301 
2.00518 4.33739 0.627691 
-4.33739 2.00518 0.627691 
-2.00518 -4.33739 0.627691 
4.33739 -2.00518 0.627691 
0.328688 4.90924 -0.391374 
-4.90924 0.328688 -0.391374 
-0.328688 -4.90924 -0.391374 
4.90924 -0.328688 -0.391374 
3.53642 2.50341 -0.942991 
-2.50341 3.53642 -0.942991 
-3.53642 -2.50341 -0.942991 
2.50341 -3.53642 -0.942991 
3.20024 0.901042 0.737513 
-0.901042 3.20024 0.737513 
-3.20024 -0.901042 0.737513 
0.901042 -3.20024 0.737513 
4.2775 2.37754 0.448383 
-2.37754 4.2775 0.448383 
-4.2775 -2.37754 0.448383 
2.37754 -4.2775 0.448383 
1.82268 4.54175 -0.448383 
-4.54175 1.82268 -0.448383 
-1.82268 -4.54175 -0.448383 
4.54175 -1.82268 -0.448383 
3.11565 0.1132 -0.470704 
-0.1132 3.11565 -0.470704 
-3.11565 -0.1132 -0.470704 
0.1132 -3.11565 -0.470704 
2.02655 2.65923 -0.754251 
-2.65923 2.02655 -0.754251 
-2.02655 -2.65923 -0.754251 
2.65923 -2.02655 -0.754251 
2.46246 2.2064 -0.720309 
-2.2064 2.46246 -0.720309 
-2.46246 -2.2064 -0.720309 
2.2064 -2.46246 -0.720309 
2.64719 4.19691 0.272952 
-4.19691 2.64719 0.272952 
-2.64719 -4.19691 0.272952 
4.19691 -2.64719 0.272952 
4.89108 0.285512 -0.437116 
-0.285512 4.89108 -0.437116 
-4.89108 -0.285512 -0.437116 
0.285512 -4.89108 -0.437116 
1.46665 3.28451 0.915241 
-3.28451 1.46665 0.915241 
-1.46665 -3.28451 0.915241 
3.28451 -1.46665 0.915241 
4.02637 2.26119 0.786288 
-2.26119 4.02637 0.786288 
-4.02637 -2.26119 0.786288 
2.26119 -4.02637 0.786288 
0.0599509 4.11242 -0.993611 
-4.11242 0.0599509 -0.993611 
-0.0599509 -4.11242 -0.993611 
4.11242 -0.0599509 -0.993611 
2.92917 4.00936 -0.260842 
-4.00936 2.92917 -0.260842 
-2.92917 -4.00936 -0.260842 
4.00936 -2.92917 -0.260842 
2.53325 3.91845 -0.745941 
-3.91845 2.53325 -0.745941 
-2.53325 -3.91845 -0.745941 
3.91845 -2.53325 -0.745941 
3.37557 2.21551 0.999289 
-2.21551 3.37557 0.999289 
-3.37557 -2.21551 0.999289 
2.21551 -3.37557 0.999289 
2.954 0.871114 -0.391374 
-0.871114 2.954 -0.391374 
-2.954 -0.871114 -0.391374 
0.871114 -2.954 -0.391374 
2.82522 3.93518 0.535827 
-3.93518 2.82522 0.535827 
-2.82522 -3.93518 0.535827 
3.93518 -2.82522 0.535827 
2.43303 1.8726 0.368125 
-1.8726 2.43303 0.368125 
-2.43303 -1.8726 0.368125 
1.8726 -2.43303 0.368125 
4.03466 2.91898 -0.19971 
-2.91898 4.03466 -0.19971 
-4.03466 -2.91898 -0.19971 
2.91898 -4.03466 -0.19971 
3.5548 2.99308 0.762443 
-2.99308 3.5548 0.762443 
-3.5548 -2.99308 0.762443 
2.99308 -3.5548 0.762443 
3.81131 1.17199 -0.999921 
-1.17199 3.81131 -0.999921 
-3.81131 -1.17199 -0.999921 
1.17199 -3.81131 -0.999921 
4.64973 0.252667 -0.754251 
-0.252667 4.64973 -0.754251 
-4.64973 -0.252667 -0.754251 
0.252667 -4.64973 -0.754251 
2.68067 4.21468 -0.100362 
-4.21468 2.68067 -0.100362 
-2.68067 -4.21468 -0.100362 
4.21468 -2.68067 -0.100362 
4.23983 1.72569 0.816339 
-1.72569 4.23983 0.816339 
-4.23983 -1.72569 0.816339 
1.72569 -4.23983 0.816339 
2.17219 4.04096 0.809017 
-4.04096 2.17219 0.809017 
-2.17219 -4.04096 0.809017 
4.04096 -2.17219 0.809017 
4.63383 1.82389 -0.19971 
-1.82389 4.63383 -0.19971 
-4.63383 -1.82389 -0.19971 
1.82389 -4.63383 -0.19971 
4.74474 0.566716 -0.627691 
-0.566716 4.74474 -0.627691 
-4.74474 -0.566716 -0.627691 
0.566716 -4.74474 -0.627691 
3.80492 3.16789 0.309017 
-3.16789 3.80492 0.309017 
-3.80492 -3.16789 0.309017 
3.16789 -3.80492 0.309017 
3.63632 3.42248 0.112856 
-3.42248 3.63632 0.112856 
-3.63632 -3.42248 0.112856 
3.42248 -3.63632 0.112856 
4.51285 1.81437 0.503623 
-1.81437 4.51285 0.503623 
-4.51285 -1.81437 0.503623 
1.81437 -4.51285 0.503623 
2.2987 2.88779 0.951057 
-2.88779 2.2987 0.951057 
-2.2987 -2.88779 0.951057 
2.88779 -2.2987 0.951057 
0.429588 3.9137 0.998027 
-3.9137 0.429588 0.998027 
-0.429588 -3.9137 0.998027 
3.9137 -0.429588 0.998027 
4.69979 0.332466 0.70265 
-0.332466 4.69979 0.70265 
-4.69979 -0.332466 0.70265 
0.332466 -4.69979 0.70265 
4.47321 2.12212 0.309017 
-2.12212 4.47321 0.309017 
-4.47321 -2.12212 0.309017 
2.12212 -4.47321 0.309017 
3.26991 3.52624 0.587785 
-3.52624 3.26991 0.587785 
-3.26991 -3.52624 0.587785 
3.52624 -3.26991 0.587785 
2.6487 3.7208 0.823533 
-3.7208 2.6487 0.823533 
-2.6487 -3.7208 0.823533 
3.7208 -2.6487 0.823533 
-0.304986 -4.97735 0.162637 
4.97735 -0.304986 0.162637 
0.304986 4.97735 0.162637 
-4.97735 0.304986 0.162637 
0.237023 4.50821 0.857527 
-4.50821 0.237023 0.857527 
-0.237023 -4.50821 0.857527 
4.50821 -0.237023 0.857527 
1.84343 4.64234 -0.100362 
-4.64234 1.84343 -0.100362 
-1.84343 -4.64234 -0.100362 
4.64234 -1.84343 -0.100362 
4.65756 1.22648 0.577573 
-1.22648 4.65756 0.577573 
-4.65756 -1.22648 0.577573 
1.22648 -4.65756 0.577573 
4.67806 1.54017 0.379779 
-1.54017 4.67806 0.379779 
-4.67806 -1.54017 0.379779 
1.54017 -4.67806 0.379779 
3.81931 2.72823 -0.720309 
-2.72823 3.81931 -0.720309 
-3.81931 -2.72823 -0.720309 
2.72823 -3.81931 -0.720309 
2.11585 4.51555 0.162637 
-4.51555 2.11585 0.162637 
-2.11585 -4.51555 0.162637 
4.51555 -2.11585 0.162637 
3.39212 3.63048 0.24869 
-3.63048 3.39212 0.24869 
-3.39212 -3.63048 0.24869 
3.63048 -3.39212 0.24869 
1.11419 3.64618 0.982287 
-3.64618 1.11419 0.982287 
-1.11419 -3.64618 0.982287 
3.64618 -1.11419 0.982287 
3.53165 2.86306 -0.837528 
-2.86306 3.53165 -0.837528 
-3.53165 -2.86306 -0.837528 
2.86306 -3.53165 -0.837528 
4.22902 1.13924 0.925077 
-1.13924 4.22902 0.925077 
-4.22902 -1.13924 0.925077 
1.13924 -4.22902 0.925077 
2.39447 4.31945 -0.344643 
-4.31945 2.39447 -0.344643 
-2.39447 -4.31945 -0.344643 
4.31945 -2.39447 -0.344643 
3.64561 1.64606 -1 
-1.64606 3.64561 -1 
-3.64561 -1.64606 -1 
1.64606 -3.64561 -1 
1.54267 4.69162 -0.344643 
-4.69162 1.54267 -0.344643 
-1.54267 -4.69162 -0.344643 
4.69162 -1.54267 -0.344643 
4.11217 0.459742 -0.990461 
-0.459742 4.11217 -0.990461 
-4.11217 -0.459742 -0.990461 
0.459742 -4.11217 -0.990461 
4.2199 0.589224 0.965382 
-0.589224 4.2199 0.965382 
-4.2199 -0.589224 0.965382 
0.589224 -4.2199 0.965382 
4.59728 1.14412 -0.675333 
-1.14412 4.59728 -0.675333 
-4.59728 -1.14412 -0.675333 
1.14412 -4.59728 -0.675333 
0.0455983 4.5356 -0.844328 
-4.5356 0.0455983 -0.844328 
-0.0455983 -4.5356 -0.844328 
4.5356 -0.0455983 -0.844328 
3.85257 -3.18712 1.37291e-14 
3.18712 3.85257 -3.4289e-15 
-3.18712 -3.85257 -1.5675e-14 
-3.85257 3.18712 -1.66574e-14 
4.47375 0.517821 -0.863923 
-0.517821 4.47375 -0.863923 
-4.47375 -0.517821 -0.863923 
0.517821 -4.47375 -0.863923 
0.281719 4.86816 0.481754 
-4.86816 0.281719 0.481754 
-0.281719 -4.86816 0.481754 
4.86816 -0.281719 0.481754 
2.96991 0.466944 0.112856 
-0.466944 2.96991 0.112856 
-2.96991 -0.466944 0.112856 
0.466944 -2.96991 0.112856 
3.00366 0.0913713 0.100362 
-0.0913713 3.00366 0.100362 
-3.00366 -0.0913713 0.100362 
0.0913713 -3.00366 0.100362 
-4.98411 -0.307915 -0.112856 
-0.307915 4.98411 -0.112856 
4.98411 0.307915 -0.112856 
0.307915 -4.98411 -0.112856 
3.35589 3.53785 -0.481754 
-3.53785 3.35589 -0.481754 
-3.35589 -3.53785 -0.481754 
3.53785 -3.35589 -0.481754 
1.95383 3.67561 0.986686 
-3.67561 1.95383 0.986686 
-1.95383 -3.67561 0.986686 
3.67561 -1.95383 0.986686 
4.83421 0.941707 0.379779 
-0.941707 4.83421 0.379779 
-4.83421 -0.941707 0.379779 
0.941707 -4.83421 0.379779 
4.03502 2.93936 0.125333 
-2.93936 4.03502 0.125333 
-4.03502 -2.93936 0.125333 
2.93936 -4.03502 0.125333 
4.07546 2.61881 0.535827 
-2.61881 4.07546 0.535827 
-4.07546 -2.61881 0.535827 
2.61881 -4.07546 0.535827 
4.95024 0.632314 0.13779 
-0.632314 4.95024 0.13779 
-4.95024 -0.632314 0.13779 
0.632314 -4.95024 0.13779 
4.40988 1.70765 -0.684547 
-1.70765 4.40988 -0.684547 
-4.40988 -1.70765 -0.684547 
1.70765 -4.40988 -0.684547 
3.39393 2.53558 0.971632 
-2.53558 3.39393 0.971632 
-3.39393 -2.53558 0.971632 
2.53558 -3.39393 0.971632 
0.332518 4.72583 -0.675333 
-4.72583 0.332518 -0.675333 
-0.332518 -4.72583 -0.675333 
4.72583 -0.332518 -0.675333 
3.1622 0.480089 0.597905 
-0.480089 3.1622 0.597905 
-3.1622 -0.480089 0.597905 
0.480089 -3.1622 0.597905 
0.858691 4.21037 -0.954865 
-4.21037 0.858691 -0.954865 
-0.858691 -4.21037 -0.954865 
4.21037 -0.858691 -0.954865 
3.23505 2.59978 -0.988652 
-2.59978 3.23505 -0.988652 
-3.23505 -2.59978 -0.988652 
2.59978 -3.23505 -0.988652 
0.466803 2.97144 -0.125333 
-2.97144 0.466803 -0.125333 
-0.466803 -2.97144 -0.125333 
2.97144 -0.466803 -0.125333 
3.66313 2.07905 0.977268 
-2.07905 3.66313 0.977268 
-3.66313 -2.07905 0.977268 
2.07905 -3.66313 0.977268 
1.47775 3.89151 0.986686 
-3.89151 1.47775 0.986686 
-1.47775 -3.89151 0.986686 
3.89151 -1.47775 0.986686 
1.65186 2.84348 -0.70265 
-2.84348 1.65186 -0.70265 
-1.65186 -2.84348 -0.70265 
2.84348 -1.65186 -0.70265 
1.22648 4.65756 -0.577573 
-4.65756 1.22648 -0.577573 
-1.22648 -4.65756 -0.577573 
4.65756 -1.22648 -0.577573 
4.52369 2.12521 -0.0627905 
-2.12521 4.52369 -0.0627905 
-4.52369 -2.12521 -0.0627905 
2.12521 -4.52369 -0.0627905 
4.59557 0.621672 0.770513 
-0.621672 4.59557 0.770513 
-4.59557 -0.621672 0.770513 
0.621672 -4.59557 0.770513 
1.88826 3.88652 -0.947098 
-3.88652 1.88826 -0.947098 
-1.88826 -3.88652 -0.947098 
3.88652 -1.88826 -0.947098 
3.46563 3.2048 -0.693653 
-3.2048 3.46563 -0.693653 
-3.46563 -3.2048 -0.693653 
3.2048 -3.46563 -0.693653 
3.64257 2.70285 0.844328 
-2.70285 3.64257 0.844328 
-3.64257 -2.70285 0.844328 
2.70285 -3.64257 0.844328 
2.8215 1.45913 -0.567269 
-1.45913 2.8215 -0.567269 
-2.8215 -1.45913 -0.567269 
1.45913 -2.8215 -0.567269 
3.80492 -3.16789 -0.309017 
3.16789 3.80492 -0.309017 
-3.16789 -3.80492 -0.309017 
-3.80492 3.16789 -0.309017 
-4.95103 0.0155542 -0.309017 
0.0155542 4.95103 -0.309017 
4.95103 -0.0155542 -0.309017 
-0.0155542 -4.95103 -0.309017 
2.12848 2.13598 -0.175023 
-2.13598 2.12848 -0.175023 
-2.12848 -2.13598 -0.175023 
2.13598 -2.12848 -0.175023 
0.635645 4.84074 -0.470704 
-4.84074 0.635645 -0.470704 
-0.635645 -4.84074 -0.470704 
4.84074 -0.635645 -0.470704 
2.866 3.89714 -0.546394 
-3.89714 2.866 -0.546394 
-2.866 -3.89714 -0.546394 
3.89714 -2.866 -0.546394 
0.900655 4.48809 -0.816339 
-4.48809 0.900655 -0.816339 
-0.900655 -4.48809 -0.816339 
4.48809 -0.900655 -0.816339 
2.38097 1.85407 -0.187381 
-1.85407 2.38097 -0.187381 
-2.38097 -1.85407 -0.187381 
1.85407 -2.38097 -0.187381 
3.1089 3.3738 0.809017 
-3.3738 3.1089 0.809017 
-3.1089 -3.3738 0.809017 
3.3738 -3.1089 0.809017 
3.92045 0.181922 -0.997159 
-0.181922 3.92045 -0.997159 
-3.92045 -0.181922 -0.997159 
0.181922 -3.92045 -0.997159 
3.04625 1.84784 -0.899405 
-1.84784 3.04625 -0.899405 
-3.04625 -1.84784 -0.899405 
1.84784 -3.04625 -0.899405 
